# .PCD v0.7 - Point Cloud Data file format
VERSION 0.7
FIELDS x y z
SIZE 4 4 4
TYPE F F F
COUNT 1 1 1
WIDTH 1476
HEIGHT 1
VIEWPOINT 0 0 0 1 0 0 0
POINTS 1476
DATA ascii
5.8380375 -8.575181 -0.098861113
6.077651 -8.599781 -0.074779041
6.4168115 -8.6452513 -0.085085139
6.6469274 -8.6603441 -0.068074971
6.8775811 -8.6754837 -0.065882161
7.1254387 -8.6908541 -0.079713345
7.3757968 -8.7086115 -0.082718894
7.635324 -8.725749 -0.083767146
7.8507929 -8.7353363 -0.097806796
8.1345549 -8.7244673 -0.097553268
8.3702154 -8.6563187 -0.079613246
6.5175495 0.37428272 0.18939492
12.99014 0.46096402 0.099472903
13.086312 0.45678502 0.1028225
13.290277 0.48993829 0.081467047
14.231395 0.3536953 0.063161016
14.352382 0.37775195 0.099731408
12.101077 5.9215832 0.19293983
12.409385 5.9925818 0.1872348
12.72518 5.9957829 0.18584101
12.893125 5.9762459 0.19262496
16.914701 3.6381807 -0.086928293
17.066149 3.5696414 -0.066447407
8.3664522 -8.6539459 -0.071445145
8.6047745 -8.6566219 -0.050048497
8.8205462 -8.6623611 -0.022715444
9.4600048 -8.6410322 -0.025884066
9.6108418 -8.6248503 -0.057181705
9.8074932 -8.6202774 -0.10092206
20.718126 -8.6340799 -0.10580052
20.769979 -8.6153793 -0.070867971
14.356997 0.37925449 0.10599163
12.894957 5.9754982 0.18537879
17.065004 3.5639064 -0.063709013
17.358734 3.5282681 -0.057884403
20.769569 -8.6200352 -0.071733452
-2.7860329 -8.3027439 -0.20603947
-2.7032616 -8.3089819 -0.19688925
-2.4493954 -8.3884077 -0.17571504
-2.1348033 -8.3980455 -0.19107857
-1.8067477 -8.3532095 -0.19978596
-1.6784329 -8.3207922 -0.20946649
-0.10104456 -8.2504444 -0.0018021453
0.14107919 -8.2627773 -0.048283309
0.38309366 -8.2625294 -0.051237814
0.621714 -8.2715168 -0.046945143
0.86752689 -8.2741585 -0.048733547
1.1324842 -8.2808142 -0.042206876
1.3716829 -8.275382 -0.048870455
1.6488656 -8.2904739 -0.037983935
1.8666793 -8.311676 -0.036304358
14.34857 0.37757376 0.10908642
14.557692 0.31244147 0.069401197
24.233913 0.4146584 0.067079
24.400064 0.3795644 0.12208788
24.512369 0.42468929 0.23132287
-3.7619872 0.62588787 0.18039885
-3.6394944 0.62248152 0.12193751
12.893375 5.9761863 0.18407136
13.113867 5.9590945 0.2291089
17.362251 3.529146 -0.054179933
17.576954 3.5729461 -0.030828446
17.855429 3.5891774 -0.017236492
18.090353 3.6068361 -0.0060745222
18.380558 3.5929632 -0.010287621
18.540152 3.5789328 -0.0089572314
18.87636 3.5461669 -0.010997355
19.04809 3.5265193 -0.0032997408
20.979015 3.6353164 -0.017792158
21.07687 3.6234674 -0.062871769
23.161184 3.6331561 -0.047786888
2.144309 -8.3293915 -0.057583019
2.3384109 -8.3424549 -0.053488776
2.6168089 -8.360815 -0.049378771
2.8886745 -8.3766956 -0.058154009
3.1284492 -8.3983154 -0.055497948
3.378267 -8.4157562 -0.074072763
3.637265 -8.436409 -0.078955971
3.8728156 -8.4538679 -0.087010302
4.1243677 -8.4662504 -0.092933506
4.3574805 -8.4796705 -0.099583469
-3.6404357 0.62236601 0.1203566
13.121349 5.9590697 0.18030894
23.159044 3.6115022 -0.07331948
23.282907 3.6582465 -0.070113644
5.2121248 3.9912107 -0.0035846208
5.6549401 3.9689937 -0.0021247908
5.9376163 3.9564676 -0.0061501176
6.063796 3.9422917 -0.0020765695
8.734581 3.7573822 -0.052113313
8.8452539 3.8830492 -0.079274364
14.966887 3.7936435 -0.05574644
15.125717 3.82921 -0.049204558
4.3666768 -8.482728 -0.091871955
4.5916748 -8.4873533 -0.10159729
4.8412189 -8.4902573 -0.12287358
5.054369 -8.4961052 -0.13390684
9.4656286 -8.3813887 -0.025383558
9.5995674 -8.373105 -0.050209641
9.7949381 -8.3765574 -0.091088973
20.720449 -8.3809099 -0.10534188
20.784224 -8.3719854 -0.070358261
-2.7752399 -8.1390705 -0.15978733
-3.6394567 0.62543017 0.12762213
6.3891959 0.6275335 0.092240579
13.119516 5.9586902 0.17949624
13.350855 5.9391322 0.18498503
15.129913 3.8266947 -0.05407916
15.368387 3.8064227 -0.068763435
15.633093 3.7840974 -0.060417756
-2.7829242 -8.1301403 -0.16327339
-2.6091301 -8.0655842 -0.11289226
-2.3698077 -8.0685902 -0.10821507
-2.1317976 -8.0841646 -0.12050923
-1.881683 -8.1010609 -0.12269514
6.3905315 0.62541687 0.091296673
13.350245 5.9393907 0.18566427
15.623784 3.7854717 -0.076558046
15.878464 3.771601 -0.073759548
-1.87155 -8.1073856 -0.13253511
-1.6214011 -8.1188269 -0.13467389
-1.3785096 -8.1207228 -0.13346745
13.348905 5.939115 0.18598044
6.3924656 0.63915133 0.073120043
6.5348182 0.63492537 0.17461957
12.988115 0.53236067 0.088787466
13.146008 0.59190995 0.15387452
15.874318 3.7704711 -0.069820374
16.086191 3.7671318 -0.056707241
16.335045 3.7592816 -0.074790873
16.551262 3.7590752 -0.080013871
16.914991 3.7529447 -0.0219051
20.980574 3.8743672 -0.024690257
21.085325 3.8743489 -0.057530884
-1.3766098 -8.1221895 -0.13894933
-1.1180228 -8.131319 -0.13941227
-0.86346984 -8.1243095 -0.11520649
13.345238 5.9394331 0.19156337
13.614772 5.9318085 0.16595222
13.879158 5.9244819 0.17172356
14.087269 5.9101601 0.14172634
14.398528 5.8404646 0.030616531
14.601283 5.8215504 0.022493009
13.144919 0.59400547 0.15836683
13.361775 0.64941156 0.14433239
21.086628 3.874171 -0.055145942
21.250341 3.907099 -0.17509709
23.192867 3.8847058 -0.049424239
23.293537 3.8841114 -0.081924848
4.6307621 4.0502405 -0.0024938253
4.8236375 4.0404191 -0.0022726809
7.4142056 4.1596241 -0.01916944
7.6423407 4.11098 -0.049985625
7.8801084 4.0984492 -0.075789526
8.0614071 4.1670513 -0.088967219
8.9705935 4.0396695 -0.068008378
9.0465326 4.135901 -0.092904255
9.3052444 4.1101856 -0.03174508
9.67309 4.203249 -0.038789678
9.880579 4.1736875 -0.039828259
10.121113 4.1734543 -0.035260554
10.317487 4.1555591 -0.034828566
15.116375 4.0213385 -0.018875262
20.979992 4.1049128 -0.054015379
21.078642 4.1166306 -0.050172627
-0.86092329 -8.121562 -0.12171437
-0.58360189 -8.094676 -0.03407893
-0.3572979 -8.1840305 -0.043604665
-0.13014534 -8.202611 -0.046387892
0.12258193 -8.2165794 -0.047317706
14.589 5.8226247 0.029148923
14.911558 5.8041387 0.032976322
15.122821 5.8084583 0.10550612
15.373798 5.8009086 0.14363824
15.633625 5.7905016 0.16309918
15.868929 5.7800231 0.17502272
16.119711 5.7791619 0.19002099
16.377808 5.7763963 0.18926029
16.625824 5.7676005 0.18869868
13.357001 0.64780116 0.14434597
13.599334 0.67105263 0.11407543
13.869439 0.72087485 0.085163996
21.084826 4.1303 -0.046525367
21.284458 4.0682278 -0.12389163
23.201168 4.1316295 -0.065400243
23.305395 4.1205864 -0.081232272
7.4357648 4.2686453 -0.0078966115
7.6222863 4.2721019 -0.016350983
7.9339252 4.2929683 -0.014579129
8.1374331 4.3736877 -0.048953421
8.2930393 4.449326 -0.070349604
9.956048 4.3298006 -0.021593723
10.157853 4.3214054 -0.015617851
10.36951 4.3022418 -0.039616287
10.663293 4.2792349 -0.038126245
10.800608 4.2688751 -0.027601719
20.979166 4.3750806 -0.053818986
21.094666 4.3807573 -0.047300611
21.256165 4.3907452 -0.077066906
23.208179 4.3930502 -0.070533544
0.1283828 -8.215848 -0.054066516
0.37667453 -8.2277784 -0.04711495
0.60404783 -8.2309332 -0.053340375
0.83910209 -8.2359457 -0.047158275
1.1356107 -8.2364206 -0.056356825
1.3598112 -8.2481394 -0.071696237
9.4736691 -8.1167078 -0.016751502
9.6063185 -8.1215153 -0.045182634
9.7981253 -8.1317806 -0.087154239
20.723137 -8.1230288 -0.089602597
20.797865 -8.122757 -0.067245208
13.847978 0.70810097 0.077645876
14.210214 0.62294126 0.058922909
14.340437 0.62314671 0.10012174
16.610882 5.7674642 0.18829624
16.817766 5.7619071 0.16420425
17.108271 5.7578402 0.19750664
17.314341 5.7596192 0.16161124
22.715141 5.8042593 0.023671053
22.787445 5.7862234 0.02692152
23.04603 5.7725267 0.0082591521
-0.31331265 6.0809631 0.19829325
-0.2225769 6.1239519 0.17264824
8.7420025 6.2231855 0.036022127
8.849535 6.2201571 0.043880064
9.1173897 6.1965976 0.060551699
9.3771515 6.1793265 0.045269802
9.6474352 6.1779022 0.10681068
9.8585358 6.1751418 0.11786431
10.142901 6.1583791 0.12126936
10.382934 6.1488523 0.1460956
10.647225 6.1086612 0.11604103
10.907681 6.0644412 0.11882097
23.213552 4.3833385 -0.069766335
23.313496 4.3825254 -0.079557471
8.1708956 4.5729742 -0.0085316915
8.3896885 4.6279368 -0.059906796
8.5184174 4.7349963 -0.066997342
20.9697 4.5782223 -0.090085283
21.104469 4.6218791 -0.054373246
21.266121 4.6152873 -0.075645886
22.844334 4.7216945 -0.12170929
23.217497 4.6193547 -0.079969384
23.300394 4.6272473 -0.088385649
20.798674 -8.1267872 -0.060722619
-3.3429246 -7.8403025 -0.0048816693
-3.1127522 -7.8263102 -0.013802406
-2.8143456 -7.8620224 -0.1142587
-2.7177382 -7.9107909 -0.18111376
-0.7612682 -7.8814797 -0.12127367
14.375503 0.62138599 0.10202897
14.502374 0.5284785 0.1361274
24.241751 0.58298606 0.11197062
24.405741 0.62135094 0.12133721
10.931176 6.0700383 0.12685749
11.01755 6.0658793 0.19179904
11.974871 6.0098357 0.24714772
12.195765 6.02741 0.19554381
23.315201 4.6215568 -0.070592985
8.3995085 4.8606839 -0.0092752939
8.6688662 4.9191403 -0.091243036
8.8734827 4.9550653 -0.099426314
9.129528 4.9392161 -0.096417114
9.3609076 4.9240804 -0.088514544
-0.76153404 -7.8846579 -0.11263029
-0.6115914 -7.8617487 -0.040989518
8.3751993 -7.751883 -0.017488671
8.9815102 -7.7759953 -0.058585536
9.4545889 -7.8415003 -0.035875838
9.6259499 -7.8543973 -0.038916923
9.8384562 -7.84692 -0.062166423
10.104799 -7.7682753 -0.046879426
10.423353 -7.7687435 -0.13369073
10.605791 -7.7684121 -0.088421106
10.895769 -7.797235 -0.059606362
11.14921 -7.8286009 -0.050302941
11.402094 -7.7904224 -0.039918553
11.670431 -7.7801924 -0.084382221
11.861685 -7.814178 -0.074298948
20.725183 -7.8931937 -0.1092467
20.810678 -7.8735766 -0.074593246
24.418146 0.62356067 0.11816553
24.537498 0.64839739 0.027155822
-3.7715533 0.86439443 0.11341268
-3.6184459 0.87005371 0.11964156
12.192723 6.0258141 0.19622409
12.415212 6.0210223 0.17967379
9.3737907 4.9217687 -0.10415991
9.6203318 4.9063678 -0.10339127
9.8752279 4.9010286 -0.087820746
10.117494 4.8763728 -0.066152394
10.372339 4.8774772 -0.059354134
10.620221 4.9131422 -0.042219169
10.840387 4.9367371 -0.019532939
11.134151 4.9386382 -0.0079615759
11.359564 4.9264488 -0.0079179853
11.636621 4.9120908 -0.015836826
11.943071 4.8782802 -0.01958606
12.096545 4.9138536 -0.033771269
20.993889 4.8823724 -0.046402358
21.1143 4.8683619 -0.058410347
20.809156 -7.8749332 -0.061472651
-3.0452852 -7.6689219 -0.0055825543
-2.8339274 -7.6300268 -0.1136039
-0.75395739 -7.68784 -0.12994279
-0.68198955 -7.6107574 -0.081035957
12.415528 6.0222826 0.17749898
12.611012 6.0099936 0.18828118
-3.618964 0.87057191 0.1133677
6.4198546 0.87658226 0.094767414
21.116276 4.8650427 -0.053999297
21.283266 4.881031 -0.065556228
23.215252 4.8647866 -0.070574127
23.29195 4.8678207 -0.085980937
8.6250124 5.03824 -0.072050072
8.8491259 5.0389447 -0.14151147
9.0679111 5.1357474 -0.0033842945
9.4570332 5.0918245 -0.0020053203
9.9543352 5.0201011 -0.16391322
10.058784 5.0667 -0.17836972
10.335516 5.0226955 -0.0054425229
10.631405 5.1463737 -0.013575119
21.130737 5.1210632 -0.061744936
21.297972 5.107017 -0.070033342
21.804552 5.2322059 -0.12288523
22.687668 5.2389555 -0.11014093
22.904251 5.1801629 -0.13795725
23.150276 5.0710754 -0.085441463
-0.69414061 -7.6093812 -0.096663013
8.4140501 -7.6574445 -0.083368108
8.6283102 -7.6572247 -0.08010114
12.609719 6.0103397 0.1876359
6.4176517 0.86330575 0.091158353
23.149981 5.0763812 -0.090063944
23.302704 5.0393872 -0.087150484
10.653394 5.336103 -0.011673467
20.979919 5.3748899 -0.010087308
21.168262 5.3661551 -0.059104931
21.3943 5.40169 -0.067065664
8.6225996 -7.6521997 -0.091486044
8.8796082 -7.675168 -0.084553488
9.1294374 -7.6913257 -0.086789936
12.616143 6.010613 0.19291915
12.854459 6.0132108 0.17264523
13.125866 6.0149913 0.17290914
13.384979 6.0132823 0.15568709
13.596228 6.0126853 0.17390327
13.92134 6.0134888 0.23389226
-0.2725991 6.2768459 0.17806454
-0.20552313 6.3732066 0.17533895
4.8647981 6.487709 0.062345784
5.1616039 6.4690561 0.07395009
5.3605771 6.4794559 0.1728242
5.6350121 6.4476423 0.12544921
5.8702469 6.4295125 0.14329314
6.1184773 6.4171505 0.11407073
6.3855829 6.4058743 0.1244978
6.6411819 6.4021449 0.17771603
6.8928776 6.3928299 0.16673629
7.1331391 6.3774271 0.14243169
6.4182925 0.86462653 0.088889316
6.571816 0.89752209 0.15278263
13.648681 0.7827695 0.16555248
21.387123 5.4012918 -0.077231675
21.618574 5.3828106 -0.074332498
21.870264 5.3672185 -0.070886195
9.1315413 -7.6938834 -0.082458727
9.3766823 -7.7110643 -0.085121281
9.6252642 -7.7163129 -0.10299989
7.1353073 6.3817968 0.17629369
7.3825521 6.3638806 0.14347866
7.6029797 6.3415194 0.17866923
7.8602152 6.3298626 0.15950029
8.1074305 6.3355432 0.19211359
8.3578234 6.3106151 0.17206474
8.6141882 6.3164601 0.18530884
8.7590809 6.3487449 0.22755177
9.4523182 6.2994714 0.21964025
9.5982113 6.2777925 0.2223776
9.8825207 6.260438 0.13982294
-0.27596101 6.5842915 0.24338676
-0.18719035 6.6231079 0.17906688
1.177745 6.7444615 0.10988043
1.3983642 6.7376151 0.11833896
1.6400532 6.7370667 0.17003193
1.8611639 6.7314806 0.17296806
13.650077 0.78265333 0.1596927
13.862043 0.83653027 0.15273373
14.156435 0.86985642 0.13604054
21.862734 5.3691401 -0.071681537
22.118958 5.3661118 -0.066668168
22.371159 5.3523383 -0.072709762
22.623112 5.3270879 -0.068934329
22.875959 5.3102183 -0.064342298
9.6258316 -7.7155499 -0.10378701
9.8693857 -7.6883335 -0.099434033
10.116234 -7.6566911 -0.096608631
1.8597081 6.7295704 0.18011709
2.1279607 6.717155 0.17470406
2.3324502 6.7031174 0.1680958
2.6390507 6.682116 0.19563377
2.8659806 6.6624551 0.18996605
3.1310008 6.6427431 0.19529301
3.3661509 6.6285248 0.19606625
3.6257269 6.6076961 0.20003699
3.8789039 6.5881934 0.16684274
4.1325965 6.5643077 0.15618582
4.3798532 6.5415072 0.13716085
4.6461425 6.5365496 0.15382944
4.8773837 6.5335526 0.1939476
5.1331582 6.5194387 0.19792205
5.3501506 6.53652 0.22135264
-0.25876012 6.8540363 0.24755524
-0.12958315 6.8548951 0.19138339
14.153483 0.86966598 0.13723876
14.33483 0.87246239 0.11470468
22.870611 5.3160205 -0.067820631
23.092115 5.3301997 -0.069912605
23.275593 5.4390478 -0.052112702
10.659226 5.5722542 -0.010397545
20.998055 5.7141762 -0.11455877
21.192394 5.6314912 -0.10071583
21.306385 5.6139441 -0.086785562
22.173824 5.5934696 -0.10529891
22.372604 5.5937824 -0.091000676
22.566164 5.6232228 -0.11172411
22.875668 5.6435323 -0.11861441
23.165182 5.5620542 -0.11317772
23.321426 5.5320549 -0.068554193
10.668556 5.7891121 -0.0077056959
20.989716 5.8493562 -0.095703885
21.018599 5.8139687 -0.10485532
22.468744 5.7943377 -0.091796607
22.60638 5.8000569 -0.094185486
22.867168 5.7812309 -0.082548313
23.071819 5.780087 -0.081994832
9.9009399 6.2175727 -0.0082227504
10.037648 6.1258569 -0.0038637209
19.454491 -9.8270912 0.090500146
19.645405 -9.8016567 0.080201618
10.128801 -7.6547666 -0.084089972
10.382472 -7.6565671 -0.089790732
-0.12644343 6.8538671 0.18869638
0.12151752 6.8672748 0.19764487
0.37383294 6.8514118 0.20114511
14.330756 0.8734501 0.11955658
24.419689 0.87199521 0.12379805
24.520184 0.90120631 0.19693908
-3.6038663 1.0909456 0.13468456
19.643124 -9.8182898 0.087787554
19.886751 -9.8169651 0.082721502
20.084269 -9.7980318 0.085577816
20.369307 -9.8052254 0.08445622
20.570316 -9.7797909 0.12014072
16.426432 -9.5065393 0.095514476
16.515942 -9.5232916 0.10362123
16.972309 -9.5352192 0.10421936
17.153933 -9.5205603 0.096424669
17.401487 -9.521409 0.09390872
17.657177 -9.5277529 0.090166263
17.873785 -9.5581284 0.091752306
18.127352 -9.5646782 0.10503099
18.395279 -9.5422821 0.12485842
18.629152 -9.5427828 0.11911422
10.379192 -7.6490655 -0.1164747
10.618912 -7.6683264 -0.09969189
10.876771 -7.6790442 -0.10927875
0.3704465 6.8514357 0.1960009
0.62557286 6.8348598 0.19290876
0.88048208 6.8196583 0.19894654
-3.6079745 1.0985863 0.12546904
6.4867582 1.0152255 0.073020928
6.6133971 1.1227561 0.10104863
18.656099 -9.524332 0.10205542
18.880436 -9.5510902 0.10960689
19.11861 -9.5664606 0.10345692
19.378279 -9.5869122 0.11072422
10.872631 -7.6823163 -0.10925172
11.123883 -7.697608 -0.10988764
11.374352 -7.7197847 -0.096855111
0.8709138 6.8148031 0.18901169
1.1294721 6.7997522 0.19386201
6.6186547 1.1204686 0.10779607
6.8069048 1.1875082 0.14955208
12.716434 1.1670884 0.10071326
12.827776 1.2147603 0.11438604
19.374699 -9.5833673 0.1108254
19.630119 -9.5959806 0.10495968
19.875259 -9.6157036 0.11625043
11.374053 -7.7143779 -0.11446891
11.612463 -7.7304869 -0.10192496
11.866488 -7.653194 -0.095317893
1.1228703 6.8019371 0.18681511
1.3753649 6.7850428 0.19105101
1.6199075 6.7783432 0.20065717
12.818972 1.1927077 0.10719721
19.876711 -9.6123743 0.10711621
20.111687 -9.6347799 0.11224177
20.352461 -9.6487226 0.10397343
11.875706 -7.6421618 -0.088253774
12.075356 -7.5864921 -0.06319496
20.737242 -7.629663 -0.10261135
20.824541 -7.6235719 -0.065813683
-3.5965757 -7.4776225 -0.0016287114
-2.8130379 -7.3680201 -0.11732756
1.6108704 6.7767982 0.19427063
1.8572291 6.7734189 0.19433637
2.0905335 6.7712812 0.19692193
2.3184059 6.7651548 0.18036889
2.5260139 6.7525525 0.19394949
20.129528 -9.7790461 0.28476226
17.968004 -9.5749817 0.41199109
18.118992 -9.5235138 0.30890518
18.398064 -9.5352879 0.26271555
18.637201 -9.5559759 0.28444558
18.898022 -9.5717726 0.29977065
19.119364 -9.5892467 0.28034869
19.41877 -9.6039362 0.28851661
12.819789 1.1844894 0.10807133
13.126116 1.2078968 0.10427933
13.282244 1.2408731 0.070234291
14.329358 1.006813 0.13278793
24.426453 1.1217916 0.12255534
24.510952 1.1312983 0.13136826
-3.6003516 1.3729489 0.11663748
20.345629 -9.6470528 0.12175005
20.672983 -9.5983143 0.11381169
12.639614 -9.2579298 0.22774622
12.852171 -9.2640343 0.098138079
13.159443 -9.2706137 0.13856964
13.404016 -9.2769794 0.15103275
13.653782 -9.2797537 0.1172626
13.878522 -9.2993536 0.092494175
14.129239 -9.2999039 0.087278105
14.379874 -9.3046112 0.086747475
14.625182 -9.3138189 0.08539249
14.878876 -9.3118267 0.090336189
-2.8128846 -7.3742733 -0.11675086
-0.75276381 -7.4433179 -0.13645324
-0.68166631 -7.3754392 -0.094861262
-0.49249747 -7.2815113 -0.029555829
11.979692 -7.4750276 -0.097577885
12.109197 -7.376163 -0.08436501
19.391653 -9.6201878 0.28256655
19.632057 -9.6186953 0.27920744
19.877296 -9.6464672 0.28012845
20.122423 -9.6823072 0.28190759
20.41947 -9.6801386 0.34012401
20.71406 -9.5833082 0.34994882
20.756781 -9.5717068 0.41666168
21.657452 -9.5376072 0.39246428
13.467632 -9.2957058 0.36218637
13.517732 -9.2683096 0.42103162
14.961152 -9.2677145 0.34356895
15.015288 -9.2618599 0.34665987
15.728374 -9.3007717 0.28923446
15.828331 -9.325635 0.49446282
16.468872 -9.3511963 0.36136514
16.523272 -9.3583937 0.34176609
17.974184 -9.4579687 0.38483846
18.042707 -9.4716702 0.36816791
18.304996 -9.4645386 0.35146606
20.729076 -9.3835306 0.33430165
20.76074 -9.354538 0.41739827
-3.5948064 1.3383032 0.14860627
1.7445866 1.4922105 0.052455217
1.8511267 1.4942505 0.055470701
6.7206321 1.2838954 0.086994894
6.8558526 1.3932874 0.11292207
14.88219 -9.2943172 0.093532883
15.106705 -9.2970457 0.09377645
15.372405 -9.2994308 0.080947511
15.627007 -9.3189545 0.080147184
15.869324 -9.3364878 0.078233123
16.131195 -9.3672743 0.080678947
16.386171 -9.3795633 0.094124325
12.108411 -7.3840876 -0.069664292
12.305059 -7.3251071 -0.055311646
20.736383 -7.4045196 -0.11775662
20.840254 -7.3710947 -0.066628613
-2.7946904 -7.1226187 -0.1130351
6.8507476 1.3861917 0.1158526
7.0371408 1.4570621 0.14629653
12.706112 1.2658241 0.067043848
12.911531 1.2806129 0.094770536
20.761404 -9.3413219 0.40053645
21.666153 -9.3734884 0.46530205
8.8972893 -9.00665 0.28862861
10.214301 -9.0468359 0.27097362
10.426644 -9.0266457 0.31941128
10.54514 -9.033288 0.34109408
11.947166 -9.0843239 0.34781995
12.029709 -9.101923 0.35362366
12.394821 -9.1598482 0.25862426
12.592133 -9.1744757 0.26883835
12.790783 -9.1506186 0.25694281
13.116429 -9.1778898 0.26874214
13.45803 -9.1786661 0.3623257
13.518099 -9.1848154 0.35100195
14.940858 -9.2368498 0.37100944
15.010207 -9.2474012 0.33288729
20.730734 -9.1431427 0.33691871
20.766304 -9.1037483 0.37200135
16.379639 -9.3769712 0.085268341
16.614588 -9.3809118 0.097823165
16.867748 -9.4045467 0.078657635
17.129721 -9.424901 0.078967199
17.372656 -9.4384727 0.078533746
17.629318 -9.4415884 0.070856519
17.874844 -9.4488783 0.077822261
-2.795274 -7.1190495 -0.11716074
-0.68367201 -7.1276431 -0.094796576
-0.49067968 -7.0838208 -0.055550378
9.7257595 -7.0399351 -0.094515339
9.8691854 -7.0487437 -0.074000172
10.124741 -7.0675445 -0.062243994
12.913149 1.2803398 0.098875381
20.768171 -9.1157494 0.37903619
21.632641 -9.1038322 0.47679484
1.4990193 -8.7628727 0.28392211
1.5175148 -8.7846766 0.29007426
2.9502306 -8.8327675 0.2984139
3.0038247 -8.8389463 0.31386441
7.4512959 -8.7972155 0.2751292
7.5038776 -8.7938061 0.28944537
7.7602854 -8.8738394 0.30891535
8.1416245 -8.8217468 0.40558627
8.2957602 -8.8131266 0.3296752
8.9405489 -8.8565807 0.35992277
9.1804028 -8.8137827 0.31634006
9.2971697 -8.814271 0.29352033
10.227504 -8.9741383 0.25739694
10.459533 -8.9776831 0.3518436
10.52351 -8.9846811 0.34744939
20.729288 -8.9017887 0.33819225
20.779598 -8.8730211 0.38796923
17.893494 -9.4571486 0.079946041
18.114691 -9.4731007 0.10626169
18.361633 -9.4810686 0.079943784
18.597589 -9.4890814 0.048546493
18.815437 -9.4899616 0.040085174
19.068779 -9.4953384 0.068538502
19.290188 -9.4837866 0.085811861
20.713942 -9.3765211 0.12578654
10.111238 -7.0672488 -0.057397734
10.371428 -7.08179 -0.053410105
10.616088 -7.0766406 -0.038763631
10.876998 -7.0667367 -0.030270142
11.111261 -7.0481596 -0.043366984
11.279667 -7.0042419 -0.048805088
12.203443 -7.203743 -0.10014036
12.366114 -7.1152263 -0.064639978
12.574024 -7.0323648 -0.049941074
12.872465 -7.0128446 -0.056550074
13.031437 -7.0176497 -0.06506104
12.911089 1.2799429 0.10307068
13.135434 1.3511001 0.10918014
20.778261 -8.8689823 0.36896944
21.098694 -8.7910976 0.49419183
21.398571 -8.8351259 0.45050359
21.545666 -8.9529123 0.46960643
1.4672197 -8.7147551 0.31665936
2.9651976 -8.6628218 0.47294068
4.4717221 -8.5159731 0.36287126
4.5263515 -8.5185747 0.37115163
4.8942466 -8.5742912 0.27927917
5.1712284 -8.6219397 0.27447638
5.4190054 -8.5814228 0.2900019
5.6651049 -8.6373367 0.28904238
5.9714546 -8.6145744 0.37682313
6.0186791 -8.6141844 0.34128276
6.6979971 -8.7306919 0.25849351
7.4463868 -8.7221231 0.36292961
7.5202374 -8.7391672 0.35601047
8.9298496 -8.7074785 0.29111028
9.1693497 -8.717248 0.29001033
9.3510923 -8.6561613 0.28284392
20.712698 -9.3751183 0.1220408
20.774736 -9.3468609 0.19395757
7.8118358 -9.002265 0.10909333
8.0168715 -9.013175 0.11609465
9.9248362 -9.0248089 0.10466044
10.141034 -9.0440855 0.16037273
10.417357 -9.0313892 0.19900151
10.577415 -9.032773 0.20278457
10.874016 -9.00947 0.12214388
11.110027 -9.0361557 0.12258159
11.412947 -9.052763 0.14037535
11.634609 -9.0584774 0.13956763
11.903749 -9.0791559 0.1578619
12.121321 -9.0961027 0.1491154
13.143697 1.3519109 0.10700555
13.053482 -7.0128732 -0.074486151
18.322968 -7.0257449 -0.1177083
20.746096 -7.2321024 -0.085601456
20.865463 -7.1228352 -0.065400481
-2.7778647 -6.8784771 -0.11162792
9.340519 -8.6906796 0.29281729
9.5194101 -8.6358957 0.2649948
20.735605 -8.6427307 0.32708099
20.79744 -8.6241846 0.36601114
21.114893 -8.5863304 0.45160475
21.344137 -8.6812611 0.42477149
21.661808 -8.5391722 0.27654576
-2.7847736 -8.2855635 0.25662515
-1.7914382 -8.3527489 0.30116349
-1.7376086 -8.3508968 0.29778609
-1.0937221 -8.2709799 0.29313132
-0.58368933 -8.2617884 0.3052592
-0.3266159 -8.264061 0.28616193
-0.11833875 -8.2707672 0.29141656
0.12475331 -8.2847652 0.28666911
0.37370655 -8.2879305 0.28629717
12.119447 -9.0974398 0.15541372
12.381427 -9.1145859 0.1319191
12.626174 -9.1405773 0.1223227
12.872477 -9.1468029 0.10339663
13.144835 1.3491691 0.1126662
13.373972 1.4168254 0.11690849
-2.7780101 -6.8674212 -0.097907625
-2.7331388 -6.8347087 -0.08886338
-0.68162906 -6.8753543 -0.098233134
-0.48138106 -6.8766932 -0.059082329
9.7206764 -6.9370227 -0.10609422
9.8581753 -6.8953681 -0.066616125
0.35457659 -8.2875233 0.27276564
0.62663901 -8.2970695 0.27532727
0.88042212 -8.3098726 0.27882424
1.1143496 -8.3181438 0.272701
1.4345795 -8.3330202 0.34419772
1.5240252 -8.3322153 0.37614253
1.8757527 -8.369936 0.2957463
2.6479254 -8.4217796 0.25336167
2.9792013 -8.4172831 0.3373327
3.0289924 -8.4183416 0.36703634
4.2406821 -8.4930162 0.28574988
4.4618597 -8.4937754 0.34227026
4.5127101 -8.4916706 0.36632559
9.4551411 -8.3730469 0.27900767
9.525877 -8.3694468 0.27233821
20.7386 -8.3809814 0.32050321
20.817904 -8.3733282 0.36797217
12.877051 -9.1534739 0.12506922
13.123008 -9.165267 0.10844033
13.385282 -9.1764708 0.11588032
13.374871 1.4161533 0.1193096
9.8742447 -6.8893332 -0.063734099
10.130541 -6.8989062 -0.072052114
10.373318 -6.9182115 -0.070338175
10.62635 -6.9378476 -0.067708746
10.875886 -6.9554162 -0.069242083
13.355946 -9.1597166 0.084487505
13.604948 -9.1813488 0.10487384
13.870411 -9.1886826 0.073880643
14.130468 -9.2008982 0.071071237
14.364464 -9.2181711 0.069202721
20.819067 -8.3716049 0.36415866
21.034832 -8.3624954 0.46591279
21.430969 -8.4680634 0.28916085
21.616232 -8.4673395 0.28896385
21.773386 -8.3970909 0.27330202
-2.8842249 -8.0317421 0.3149426
-2.7226379 -8.0860081 0.39643639
-2.4852567 -8.0639935 0.35598189
-1.6990966 -8.1307764 0.25582039
-1.4070177 -8.1852608 0.26009735
-1.025438 -8.179553 0.36471936
-0.80775315 -8.1128693 0.35379088
-0.63491493 -8.0883389 0.36647147
13.369969 1.4079335 0.11410313
13.586752 1.4362116 0.12463907
10.879491 -6.9575958 -0.062137153
11.128563 -6.8986387 -0.068305932
11.3713 -6.8350525 -0.085541323
14.349754 -9.2168818 0.071201824
14.618212 -9.226059 0.060616497
14.864442 -9.23456 0.080021329
15.109694 -9.2383251 0.062518805
15.344531 -9.2397022 0.051524576
15.600148 -9.2412281 0.037680905
20.7257 -9.1269598 0.12275106
20.759953 -9.0693903 0.1716325
1.4929314 -8.7863722 0.22868048
2.9528232 -8.8388987 0.20619315
3.0094867 -8.8461084 0.2259163
3.9464307 -8.7785444 0.16004379
4.1390624 -8.7854137 0.14054877
4.366209 -8.759613 0.12818003
4.6613679 -8.7732925 0.12121549
4.8805461 -8.77003 0.11475942
5.1808267 -8.7867155 0.11347233
-0.63378799 -8.1004696 0.37598562
-0.38231009 -8.2345676 0.27954227
-0.12598146 -8.2333698 0.27827829
0.12030943 -8.2386322 0.26696414
0.3427828 -8.233717 0.27055931
9.4634533 -8.1288815 0.28824875
9.5267878 -8.1139488 0.28514522
20.736378 -8.1813269 0.3211413
20.835823 -8.1156921 0.37072092
13.583094 1.4437821 0.13473514
13.866115 1.466547 0.11931744
11.367923 -6.8309364 -0.073726878
11.519445 -6.7735991 -0.082523525
12.441295 -6.9140792 -0.079997279
12.625339 -6.8717284 -0.088026099
12.889096 -6.8910599 -0.067477643
13.035594 -6.9281054 -0.070254974
5.1405702 -8.7747221 0.11093886
5.3698597 -8.7753658 0.10592651
5.5980711 -8.7676239 0.098440006
5.9244733 -8.799655 0.097440846
6.1447892 -8.8132343 0.094898947
6.3676271 -8.8216629 0.08464165
6.6268201 -8.8256512 0.083439864
6.887208 -8.8376675 0.081672579
7.1249905 -8.8317661 0.07574708
7.3618612 -8.8258028 0.076017573
7.6359224 -8.7825432 0.07528796
7.9001412 -8.78617 0.068279386
20.833069 -8.1061249 0.36941063
21.032568 -8.1235495 0.4804692
21.663649 -8.1557331 0.29559165
-4.0955615 -7.779911 0.41452026
-3.8323681 -7.8113227 0.40923488
-3.6066818 -7.8231349 0.37823677
-3.3722334 -7.8408442 0.36944723
13.875286 1.4700778 0.13189007
14.019876 1.4901676 0.13500921
20.906002 1.4542409 0.11491736
13.023885 -6.899621 -0.07419011
14.886807 -6.7538886 -0.10107346
15.176059 -6.75491 -0.041718494
15.392055 -6.7651887 -0.046551324
15.63049 -6.7788377 -0.050827879
15.884148 -6.7935238 -0.059287108
16.125278 -6.8126106 -0.067468695
16.37676 -6.829535 -0.0660052
7.9055705 -8.7772541 0.077851288
8.1293783 -8.7948999 0.067220896
8.3732319 -8.8096075 0.071180902
8.5880413 -8.8138409 0.094532363
-3.381568 -7.8286934 0.36747825
-3.1250331 -7.8551898 0.37074858
-2.9478662 -7.8910785 0.39580822
-0.75301766 -7.9581742 0.36062038
-0.6299386 -7.8684983 0.37644872
20.901579 1.4561682 0.12075168
21.021122 1.4558119 0.11476933
24.423967 1.3697078 0.1231025
24.515022 1.3770589 0.14218986
-3.5849559 1.6228206 0.11824323
-0.80050617 1.7172437 0.10517789
16.374384 -6.8252125 -0.071363315
16.619108 -6.8470459 -0.066570982
16.872417 -6.8635316 -0.06164591
17.127724 -6.8813457 -0.059184391
17.373734 -6.8969283 -0.055824995
17.617767 -6.9134712 -0.050940562
-0.63282299 -7.8723502 0.38014847
9.1820927 -7.7699909 0.31811881
9.3708344 -7.800621 0.32452652
9.5329065 -7.9259682 0.31942168
9.7775211 -7.7948208 0.41610059
11.143174 -7.7538381 0.27715799
11.841321 -7.7815957 0.33759546
8.5767021 -8.8096676 0.091216661
8.9100361 -8.8137589 0.18997039
9.0734367 -8.8002357 0.21467827
9.400466 -8.8287687 0.13847305
9.6120586 -8.8912716 0.061697885
9.8621798 -8.9290695 0.05631822
10.128121 -8.952961 0.081297435
10.39896 -8.9711332 0.13315272
-0.80215663 1.7205442 0.11659729
-0.61613297 1.7212617 0.089998819
-0.49357328 1.7256539 0.14813684
1.7418244 1.5795239 0.067716561
1.8134978 1.601914 0.085799478
17.619282 -6.9132457 -0.051457714
17.876709 -6.9315562 -0.050576124
18.119081 -6.9436955 -0.053387932
18.288189 -6.9145718 -0.065174311
20.878223 -6.8726544 -0.065564185
22.924028 -6.7941427 -0.01257546
-2.7639499 -6.6447144 -0.11274336
11.832682 -7.7662544 0.295791
20.747744 -7.9269528 0.25075439
20.849373 -7.8752513 0.36630091
21.044245 -7.8763204 0.47687718
21.692764 -7.9323297 0.27635449
21.795008 -7.8919086 0.27243418
-4.1102247 -7.7476101 0.44152251
-3.6461556 -7.6659307 0.2772108
10.406657 -8.9683056 0.13378146
10.594554 -8.9778395 0.10914429
10.86778 -8.9814634 0.097057775
11.080128 -8.9822636 0.072711512
20.731443 -8.9013071 0.12024853
20.75915 -8.8506355 0.12898041
-0.30177414 -8.5326967 0.20657428
0.191493 -8.5151424 0.19320637
0.34843722 -8.5047865 0.18825319
0.65009779 -8.5568047 0.18027276
0.8900153 -8.5524893 0.17178975
1.0915515 -8.5897217 0.16855004
1.4437573 -8.6730919 0.19273484
2.9032986 -8.5148811 0.14321364
3.3794706 -8.5168457 0.14897275
3.6297023 -8.5324678 0.13018705
3.9023852 -8.5566378 0.12488682
1.8059349 1.6129903 0.090876631
-2.7623022 -6.64291 -0.099049836
-2.7435975 -6.5677013 -0.09357319
-0.66542405 -6.6194963 -0.092321351
-3.6653144 -7.6899705 0.28408951
-0.61689883 -7.6230841 0.37479302
3.875041 -8.5648117 0.12975408
4.1262674 -8.584816 0.11938737
4.3935423 -8.5793371 0.12376238
4.6260405 -8.593174 0.10907092
4.877809 -8.5996161 0.093694523
5.1262126 -8.6061115 0.088471845
5.3636575 -8.6124887 0.087826222
5.6410332 -8.619647 0.068020537
1.8085414 1.6086487 0.088552728
-0.66484094 -6.6281819 -0.09196265
-0.46579516 -6.6301737 -0.053770468
3.7294943 -6.5097756 -0.13900289
3.9028687 -6.5120902 -0.1572372
4.1701355 -6.517211 -0.16219676
4.4043698 -6.5111604 -0.18683371
4.629179 -6.5178523 -0.19407818
-0.61969721 -7.6190033 0.37634835
8.7246466 -7.6606045 0.34777015
8.9019117 -7.6936502 0.34294569
9.1557217 -7.7052941 0.3337568
9.3324795 -7.7193236 0.31245488
10.416154 -7.7259784 0.26879823
10.55128 -7.6952081 0.25789383
11.719049 -7.6952434 0.27661273
11.803008 -7.7148147 0.29846784
20.739225 -7.5957208 0.32846537
20.863289 -7.6275554 0.36647004
5.6243391 -8.6351376 0.086401455
5.9072599 -8.6389399 0.11627963
6.1224952 -8.6597929 0.10171107
6.3533993 -8.6679382 0.092076831
6.6276798 -8.6734905 0.075469293
6.8855138 -8.6931286 0.071852729
7.1365705 -8.7045851 0.073132314
7.3991981 -8.723032 0.085246831
1.8077543 1.6117209 0.086705588
6.9502611 1.5611097 0.096204147
7.085144 1.6651179 0.13079295
20.866352 -7.6234341 0.36604777
21.048307 -7.6063251 0.48097757
21.486977 -7.6028872 0.25091168
21.68063 -7.6192751 0.2636117
21.825054 -7.5327129 0.2693933
-4.0159249 -7.2551913 0.38976625
-0.59306639 -7.3776007 0.37186515
4.6308098 -6.519547 -0.19270238
4.8807354 -6.5317788 -0.19971193
7.3948193 -8.7206564 0.10097989
7.6170688 -8.7341871 0.062372468
7.8441281 -8.7382298 0.039893605
8.1045532 -8.7390547 0.032338955
8.4126015 -8.6855736 0.027013224
8.6378765 -8.682477 0.064087436
7.0927935 1.6567898 0.12321059
7.2695856 1.7240734 0.13818714
13.464972 1.5017809 0.046710096
13.610851 1.5216687 0.14953616
4.8750687 -6.5317888 -0.19385104
5.1198888 -6.5493894 -0.18837698
8.634263 -8.6841106 0.06394124
8.8795776 -8.6923399 0.10909759
9.1191349 -8.7042246 0.16283756
-0.59852487 -7.3731151 0.3721509
-0.49596673 -7.2579308 0.26849619
20.886486 -7.3750682 0.37517408
13.612184 1.5213326 0.14753215
13.928448 1.5700827 0.14792551
5.1237111 -6.5500622 -0.19378072
5.3890042 -6.5539579 -0.1703973
9.1144485 -8.7030439 0.15477452
9.4190044 -8.6447086 0.15386777
9.5271292 -8.6224127 0.12025648
20.726824 -8.6483994 0.14321364
20.879559 -7.3784318 0.36060351
21.064655 -7.3553915 0.46787617
21.668488 -7.3015108 0.37651661
21.837103 -7.3284421 0.42401046
-4.0185647 -7.2332978 0.42746761
-3.8723943 -7.1037402 0.40984818
-0.57183498 -7.1273823 0.36053449
5.3964739 -6.5519195 -0.15978283
13.931639 1.5703062 0.14736548
14.050338 1.6080654 0.12690943
20.873493 1.6228772 0.10838045
-0.58918554 -7.1266627 0.37442321
20.722689 -8.6298122 0.11208674
20.770445 -8.6216593 0.12346257
-1.5033169 -8.2641773 0.15855303
-1.042298 -8.251461 0.24956717
-0.95012909 -8.2504539 0.22986223
-0.55945069 -8.3004484 0.20355977
-0.36541119 -8.2909803 0.21197844
-0.13288283 -8.2839146 0.20323263
0.1363402 -8.2922382 0.20037748
5.3956008 -6.5518584 -0.15507174
5.545805 -6.5368047 -0.062523156
11.185659 -6.6718493 -0.087362833
11.431454 -6.6716413 -0.068160571
11.591865 -6.5963416 -0.09895087
20.872746 1.6292995 0.12047333
-0.59605652 -7.1240535 0.36747795
-0.49606267 -7.0761876 0.34650433
10.957568 -7.0770454 0.28142247
11.140443 -7.0547948 0.30541098
11.265859 -7.052959 0.29616979
20.89143 -7.1381798 0.35096577
11.605612 -6.6078849 -0.082138002
11.753424 -6.506794 -0.087929338
13.980256 -6.5152373 -0.035148554
14.139974 -6.6353207 -0.042417135
14.373252 -6.6901674 -0.041138534
14.625938 -6.705874 -0.042585012
14.877209 -6.7212811 -0.036925461
0.12936834 -8.3149405 0.20531429
0.38497555 -8.2917109 0.16258255
0.6263122 -8.2902393 0.14096792
0.8783977 -8.2989683 0.14469095
1.1348922 -8.3049192 0.13616265
20.869051 1.6299958 0.12293717
21.034071 1.6167433 0.10226379
24.401827 1.6481242 0.17505793
20.889925 -7.1306314 0.34708539
21.130463 -7.1517529 0.43493313
21.360352 -7.1060643 0.43603951
1.1242123 -8.2996159 0.14075272
1.3852326 -8.3185654 0.15304665
1.6031615 -8.3161793 0.12749103
1.8553586 -8.3175411 0.110567
14.863976 -6.7230611 -0.042699214
15.115809 -6.7343626 -0.042984735
15.355863 -6.7336087 -0.052637208
15.603985 -6.7423677 -0.042886779
15.766329 -6.7477789 -0.034836803
18.234085 -6.6268802 -0.0099592349
18.292286 -6.6178904 -0.034740113
20.897369 -6.6173921 -0.061125327
21.605024 -6.5618052 -0.0067772376
21.864933 -6.6151953 -0.0085840188
22.152697 -6.6282582 -0.011713351
22.380825 -6.6462293 -0.012943314
-3.5052714 -6.3271055 -0.050784163
-3.4955764 -6.3386679 -0.095876925
-2.7569571 -6.4250326 -0.07232441
-2.7036695 -6.3788095 -0.068030477
24.404221 1.6172585 0.13342032
24.52515 1.6197563 0.12392531
-3.5705292 1.8609734 0.13363814
-0.77352595 1.8397578 0.15344872
-0.57442594 1.88796 0.093382031
21.385246 -7.1027927 0.44426012
21.620255 -7.1353331 0.40511465
21.830328 -7.1063094 0.39654878
-3.8428245 -6.8335209 0.36091435
-3.6709468 -6.7900195 0.26338145
-0.57696635 -6.8760977 0.37496805
1.8692541 -8.3294249 0.12600808
2.1288333 -8.3487062 0.11568639
2.3813543 -8.373908 0.12770337
2.6294298 -8.3908463 0.11944308
2.8826828 -8.4021835 0.11690802
3.1145537 -8.4223795 0.11331908
3.3603458 -8.4330568 0.086541951
-2.721457 -6.3668718 -0.072877035
-0.64942056 -6.3720994 -0.093842387
-0.4492386 -6.3810773 -0.048252758
1.1593064 -6.2559381 -0.026096608
1.3820028 -6.2654347 -0.020637248
-0.56893831 1.8895856 0.09165369
-0.49520928 1.8421103 0.067545801
1.7471483 1.8138497 0.1198321
1.8181738 1.9083555 0.12313984
-0.57683033 -6.8747339 0.37195638
-0.48918855 -6.8564281 0.36098951
3.3752913 -8.4380703 0.095841229
3.6188929 -8.4526176 0.089867428
3.8692005 -8.4666967 0.088030033
4.1151857 -8.4752502 0.070813462
4.3632178 -8.4856997 0.078587703
4.6006289 -8.48701 0.055224407
4.8198843 -8.4960651 0.030431928
9.464839 -8.3832579 0.1495555
1.3608456 -6.2661815 -0.024000775
1.6367975 -6.2813039 -0.018743198
1.894748 -6.2984529 -0.020897275
2.1289589 -6.3106942 -0.020360213
2.3848016 -6.319942 -0.032004505
2.6385043 -6.3224378 -0.064372003
2.9233704 -6.2802057 -0.13055874
3.1437278 -6.2695284 -0.1251635
1.7967577 1.8805532 0.11569313
-0.48895973 -6.8688259 0.35561517
9.6799469 -6.8887434 0.44446281
10.547691 -6.8508697 0.37278333
10.945278 -6.9314556 0.26065463
11.129607 -6.9659781 0.30757484
11.378926 -6.9042354 0.27359223
14.942187 -6.7543812 0.35139856
15.13283 -6.7608223 0.30255282
15.382982 -6.7737689 0.29429829
15.639618 -6.7868266 0.28562325
15.872927 -6.804316 0.28405797
16.130793 -6.8175645 0.28834909
16.380672 -6.8379984 0.28783867
16.638468 -6.8534274 0.29082939
16.878891 -6.867641 0.28112072
17.143251 -6.8848019 0.28594464
17.386507 -6.9047546 0.2860198
17.625437 -6.9293046 0.28811634
17.908594 -6.8914876 0.27860391
18.109371 -6.9590416 0.42064855
20.900246 -6.8778539 0.32799613
9.4690485 -8.3810787 0.14197332
9.533474 -8.3699427 0.12835793
20.727938 -8.3846951 0.11288226
20.78467 -8.3749905 0.12356693
3.1438389 -6.2672286 -0.12391773
1.7967379 1.88244 0.11399663
20.897913 -6.8806615 0.33066419
21.053423 -6.920969 0.40332693
21.426058 -6.9371791 0.46206707
21.614178 -6.8603768 0.46010837
21.846361 -6.8613667 0.38085499
20.782469 -8.3777285 0.12332962
21.677402 -8.4121866 0.23279577
-2.8044267 -8.0472431 0.096801795
-2.5894947 -8.0709314 0.090791173
-2.3655825 -8.0741396 0.087105356
-2.1232584 -8.0834932 0.098143071
-1.8721547 -8.1040277 0.10497892
-1.6189414 -8.1189451 0.11272051
3.1394739 -6.2649465 -0.13538408
3.3798108 -6.2864075 -0.12187331
1.7993474 1.8784163 0.1173841
2.0069883 1.9757183 0.016982207
4.9185829 1.9954598 0.021868721
5.1636868 1.9913827 0.018410403
5.3925152 1.9879563 0.030777434
5.602798 1.9879348 0.027190279
5.7625728 1.9806045 0.0253499
7.180943 1.8412824 0.098530315
21.850342 -6.8705559 0.38905028
22.894516 -6.759192 0.28572568
23.055618 -6.7569246 0.31195784
24.062796 -6.7652483 0.31297034
-4.1548409 -6.7116861 0.42153195
-3.8961356 -6.7217627 0.36614907
-3.5962043 -6.6194539 0.27212042
-2.7369604 -6.5549674 0.40120545
-0.57763147 -6.6241283 0.37412441
3.3823745 -6.2886772 -0.11944973
-1.6291902 -8.1129398 0.1022924
-1.3662454 -8.1293669 0.11478207
-1.1181639 -8.1427317 0.11538021
-0.87044847 -8.172884 0.096098989
7.1841502 1.844227 0.10440142
7.3212638 1.9177203 0.13639838
-0.57727325 -6.629076 0.3737891
-0.48006308 -6.6143599 0.3658762
5.1301579 -6.5236921 0.2674734
5.3955231 -6.5546918 0.34197274
5.5617447 -6.5188427 0.43807507
13.981872 -6.51895 0.38464674
14.114633 -6.5716562 0.34793735
3.3834519 -6.2881842 -0.11550143
3.6049383 -6.3878636 -0.16919698
-0.85691875 -8.1391449 0.11660943
-0.61780608 -8.1088676 0.14146635
7.3221207 1.928073 0.13635643
7.5116148 1.9936193 0.16606437
13.419316 1.9264019 0.11661907
13.613404 1.8875836 0.12778759
13.924245 1.8727415 0.12913293
14.114726 -6.5759053 0.35115039
14.344035 -6.6728134 0.3282575
14.622971 -6.7065144 0.29088125
14.861554 -6.7210293 0.28950426
15.097488 -6.7322903 0.25941977
15.398132 -6.7313375 0.26044822
15.588443 -6.744082 0.26163548
17.979765 -6.6307559 0.26370075
18.010651 -6.5626082 0.25253341
20.913679 -6.6237645 0.31670961
21.018948 -6.5719357 0.40717283
21.694077 -6.7005439 0.46173835
3.6028562 -6.3853116 -0.17085187
3.8703759 -6.4622588 -0.19508924
-0.61926419 -8.1068277 0.12839875
-0.35969925 -8.1917048 0.11929101
-0.12592532 -8.2020855 0.093531914
13.939976 1.8823831 0.12219671
14.02398 1.8900592 0.10516559
20.870319 1.8735249 0.11887562
21.695679 -6.703712 0.45775139
21.890606 -6.6251068 0.3930099
22.122272 -6.598773 0.37760785
3.8770232 -6.4622159 -0.19399852
4.1237502 -6.4764194 -0.19969517
-0.12648788 -8.2121601 0.11491135
0.12463946 -8.211462 0.090943828
0.36479118 -8.22295 0.086157367
0.61675245 -8.2298746 0.080201887
20.870993 1.8759848 0.12309726
22.123484 -6.6014113 0.37904659
22.37401 -6.6161399 0.37704989
4.119297 -6.4747052 -0.19329
4.3564315 -6.489162 -0.19494836
0.60243595 -8.2288179 0.085140891
0.85336751 -8.2379684 0.087623842
1.0888172 -8.2434282 0.080317602
9.4781733 -8.1384735 0.14761189
9.5348186 -8.1173048 0.1295274
20.732428 -8.130229 0.10326921
20.797188 -8.125123 0.14990667
20.869335 1.8754699 0.12115397
21.049597 1.8803151 0.092539184
24.386383 1.8788582 0.11874115
22.381756 -6.6094341 0.39230508
22.622398 -6.6384163 0.37835023
22.873966 -6.658659 0.3781819
4.3544021 -6.4913011 -0.22073807
4.5717549 -6.493135 -0.17950392
4.8230491 -6.4937615 -0.17971632
5.0309725 -6.4959955 -0.17345259
5.4757762 -6.4705501 -0.12672019
5.6057239 -6.3682995 -0.11312084
20.798901 -8.122858 0.12543647
21.695274 -8.0988836 0.22161378
21.814533 -8.0758286 0.20234129
-3.573982 -7.82057 0.12526265
-3.3728495 -7.8440342 0.12515609
24.379213 1.881025 0.13046591
24.535294 1.8529545 0.15628712
-3.540772 2.1510139 0.13806646
-3.3804481 2.2121251 0.12648503
-3.121505 2.1949129 0.124001
-2.8665738 2.1764381 0.12621151
22.870884 -6.65588 0.38069135
23.062326 -6.6605492 0.37678072
23.99156 -6.614409 0.37790218
24.028761 -6.5945253 0.35428318
-4.0749688 -6.3248663 0.40161058
-3.5235672 -6.3519177 0.27368018
-2.7989326 -6.254631 0.41679412
-2.7413104 -6.2522178 0.48535964
-0.5727396 -6.3771119 0.37384138
5.6019807 -6.3665791 -0.11378103
-3.37272 -7.8430924 0.13176133
-3.1247673 -7.8536406 0.12560226
-2.8596506 2.1808016 0.12476572
-2.6240315 2.1635487 0.12816779
-2.3599288 2.1421666 0.12096526
-2.1310713 2.1528797 0.13843293
-0.5685603 -6.3748899 0.38007674
-0.47174361 -6.3632202 0.37056884
1.1171576 -6.2564321 0.47835544
1.7074499 -6.2569375 0.34052885
1.9602021 -6.2706013 0.35631457
2.1119533 -6.2929258 0.40607569
2.3905795 -6.2905574 0.34854212
2.6290913 -6.287303 0.32502514
2.8866892 -6.2804756 0.29113361
3.061048 -6.2950916 0.30223718
5.4686637 -6.4962058 0.32991457
5.5863576 -6.3509979 0.26303971
5.761415 -6.3263149 0.36057478
11.705237 -6.4558964 0.25867996
11.836363 -6.3541117 0.27847624
13.741055 -6.2614174 0.36792669
13.894106 -6.356504 0.36840415
5.5955887 -6.3633108 -0.1232101
-3.1282215 -7.8532586 0.11467781
-2.9051924 -7.8732686 0.094666332
-2.7271724 -7.9734573 0.084146112
-0.75765342 -7.9087625 0.10072885
-0.62960768 -7.8742146 0.12903136
-2.1214964 2.156791 0.13594681
-1.994362 2.2017078 0.13702233
-0.75188875 2.0170991 0.13552666
-0.56389225 2.1110556 0.1229511
13.896993 -6.367661 0.36054131
14.085355 -6.4417872 0.39966261
14.321651 -6.4858265 0.30517837
17.982559 -6.4218173 0.27440155
18.009735 -6.376626 0.26451859
18.323265 -6.3110375 0.43788907
20.92725 -6.3820987 0.30479079
5.5975728 -6.3625131 -0.11792774
5.7735858 -6.2820234 -0.035726268
-0.63068247 -7.8697729 0.12661996
8.4317093 -7.7549219 0.013722306
8.6586323 -7.7623062 0.09643133
8.912899 -7.7702456 0.15039483
9.1035223 -7.7713156 0.20367025
9.4553881 -7.8404665 0.1400024
-0.56321561 2.1087286 0.11947522
20.921555 -6.3982391 0.30536944
21.028648 -6.3758759 0.3462854
21.846577 -6.4927855 0.49696887
22.870007 -6.4931002 0.48180521
23.982574 -6.4008293 0.42817563
24.021017 -6.3727908 0.38273871
-4.043705 -6.0372429 0.35232422
-3.8544006 -6.0403557 0.3364141
-3.6165876 -6.0575151 0.35088652
-3.3770256 -6.0758052 0.36271116
5.7727065 -6.2804327 -0.035516083
11.433791 -6.4170117 -0.10061166
11.662672 -6.4057736 -0.062578782
11.837501 -6.3446817 -0.086082183
13.869053 -6.3655076 -0.050179228
9.4473581 -7.8391013 0.14512545
9.5465746 -7.8778687 0.10629417
9.8553228 -7.7914362 0.040363058
10.082403 -7.7686415 0.03189189
10.428772 -7.7762508 0.034855388
10.620487 -7.7850399 0.036116727
10.853128 -7.7857828 0.061563298
11.116486 -7.8191471 0.058899414
11.444834 -7.7844305 0.097220741
11.66433 -7.7982569 0.097894266
11.813396 -7.8042135 0.11123879
-0.56161106 2.1162968 0.12637249
-0.49631625 2.216589 0.094382249
1.8074572 2.1248362 0.12705322
-3.3703103 -6.0744529 0.37713224
-3.1227233 -6.0929875 0.36687559
-2.8757184 -6.1466894 0.37074715
13.880202 -6.3638091 -0.035896912
14.017222 -6.4709163 -0.017009161
18.248758 -6.4541607 -0.0016950774
18.308395 -6.3760414 -0.032052401
20.911722 -6.373466 -0.063466147
21.015259 -6.2711248 -0.12190668
21.478317 -6.2525406 -0.17657505
21.635508 -6.2774777 -0.13743855
21.866735 -6.305593 -0.13144918
22.116184 -6.3094945 -0.14729573
22.35849 -6.3226686 -0.14705972
22.525789 -6.3224373 -0.06820523
-4.052258 -6.012682 -0.017275607
-3.8518538 -6.0256596 -0.021483265
-3.6314468 -6.0421405 -0.020002717
11.825319 -7.8025346 0.10547734
20.732445 -7.889595 0.11212569
20.816259 -7.8683643 0.13316223
1.8088638 2.1228576 0.1262234
-2.8662589 -6.1490574 0.38221982
-2.7150214 -6.1866684 0.46929407
-0.56298059 -6.1302161 0.37696269
-3.6172416 -6.038415 -0.024828134
-3.3474021 -6.0539632 -0.050609525
-3.12637 -6.0819559 -0.11741629
20.814461 -7.8729019 0.14055161
21.706318 -7.9119782 0.2267725
21.82085 -7.8122096 0.14845324
-3.604444 -7.6461949 0.11367213
-3.0311091 -7.6714506 0.0077904114
-2.8896339 -7.6570106 0.012424593
-0.75863719 -7.7004194 0.083858252
-0.62562245 -7.6215472 0.12238061
1.8099622 2.1271539 0.13411111
-0.57928038 -6.1247768 0.36953241
-0.46570927 -6.124332 0.36191806
1.1538188 -6.1108756 0.29730636
1.3614353 -6.1460671 0.29856601
1.6255873 -6.1627393 0.28942809
1.8685772 -6.1812396 0.2867927
2.1214015 -6.1946101 0.27858537
-3.1297836 -6.0799279 -0.12432104
-2.8772593 -6.1051798 -0.11759421
-0.62806082 -7.6211629 0.1328332
8.4372931 -7.676188 0.02846564
8.648243 -7.6727171 0.04994902
8.8826904 -7.6876898 0.099162966
1.8124464 2.1268575 0.1318197
2.1146219 2.2095728 0.10222793
2.4053316 2.2213221 0.079445995
2.1358242 -6.2054915 0.28714296
2.3683381 -6.2108145 0.27884665
2.6175706 -6.2184877 0.2744042
2.8311298 -6.2356 0.2760435
5.7053275 -6.1785975 0.27717701
5.8314548 -6.0595369 0.28101736
11.719284 -6.0309176 0.32431757
11.888238 -6.1556301 0.3501479
12.080244 -6.1016946 0.30245227
13.673755 -6.0750461 0.36972719
13.862701 -6.1392264 0.39746898
-2.8781152 -6.1045208 -0.11947917
-2.6609979 -6.1556239 -0.12381701
8.8856201 -7.6882162 0.091457792
9.1313543 -7.7036152 0.12441111
2.3897643 2.2178853 0.078858107
2.6345456 2.2169089 0.10170564
13.82651 -6.1599884 0.38847208
14.0198 -6.2439246 0.45647478
17.996159 -6.1540718 0.25903299
18.026581 -6.1294589 0.26600385
18.323965 -6.139493 0.42485458
20.941854 -6.1448145 0.29200336
21.036198 -6.1230927 0.31883967
22.632259 -6.0714154 0.36734602
-2.6603408 -6.156599 -0.12149301
-0.63549733 -6.1305094 -0.091056556
-0.43084693 -6.1229444 -0.047781225
9.1293325 -7.7025895 0.12293673
9.3583565 -7.7170677 0.11837061
2.6379898 2.2139904 0.097452678
2.8682806 2.2119501 0.096638806
22.637369 -6.0671377 0.37937239
22.793955 -6.0231586 0.43704599
23.107655 -6.1583004 0.48199388
23.422398 -6.0107536 0.36141387
23.512293 -6.0195417 0.45111886
-4.1245155 -5.8796034 0.36811429
-3.9001346 -5.9744916 0.34826779
-3.7160656 -5.9815998 0.28010905
-3.3969975 -5.99156 0.25300378
-0.56994635 -5.8845501 0.37674594
-0.43213713 -6.1157646 -0.047295839
1.1397688 -6.1273832 -0.06942939
1.3718314 -6.1265874 -0.078487456
9.3586998 -7.7168918 0.12030215
9.572916 -7.7297287 0.047714375
9.8865948 -7.7073779 0.042133071
10.145004 -7.663476 0.02455307
10.402836 -7.652391 0.06296134
10.615938 -7.6612334 0.049921826
2.8814676 2.2076266 0.1011225
-0.56060719 -5.883574 0.37292132
-0.46639067 -5.8647013 0.36599621
5.9148741 -5.9217482 0.28732243
6.0478191 -5.8204756 0.29067993
11.894496 -5.8768096 0.3531397
12.143807 -5.8794827 0.39481404
12.267066 -5.8269062 0.28638405
13.689723 -5.9511924 0.32798654
1.3774314 -6.1274838 -0.077370472
1.6250991 -6.1437712 -0.081090063
1.8739036 -6.1610599 -0.078963757
2.8828568 2.2063057 0.099441811
10.632365 -7.666615 0.046368647
10.876227 -7.68049 0.045186106
11.120474 -7.6953783 0.045644578
11.405354 -7.7126718 0.073341452
11.643694 -7.7187457 0.11474027
13.690404 -5.9488525 0.33103552
13.859464 -5.8508515 0.374421
1.8764039 -6.1618004 -0.081809714
2.1267076 -6.1806598 -0.082097612
2.8781369 2.2063818 0.10029085
3.1266453 2.1987739 0.11175825
11.645666 -7.7175341 0.1070974
11.827168 -7.7053747 0.11147164
12.076577 -7.5976815 0.041706525
20.737474 -7.6306729 0.1130092
20.833176 -7.6182351 0.1264905
13.861146 -5.8533607 0.37520093
14.102825 -5.8343339 0.42165792
